ply
format ascii 1.0
element vertex 738
property float x
property float y
property float z
property uchar red
property uchar green
property uchar blue
end_header
0.6071136725959668 0.8441390671253637 15.515994924843213 6 38 26
-4.202225758680786 -5.348015226530967 12.077342988010773 3 24 14
-3.6708120824310986 -0.15624439024432785 11.125738087580539 2 17 12
4.2257269423011605 1.0694993487532318 16.542959520947946 22 149 111
-4.752888320851818 4.2026075233008235 11.099097204349556 4 27 20
-1.2299648534632928 0.1574380908380988 12.304453751592087 2 12 8
-1.5466252682450206 0.45685640130076255 12.37981625366002 3 17 12
5.445734754412277 -6.379770089609286 17.025243162522965 5 33 23
-1.0990321142319863 0.2221260106834153 12.317665428486457 5 28 16
1.895724185221032 1.111839769995287 15.941491364739854 8 50 36
2.8532783783981066 -6.214648972967618 15.83947502250294 21 146 91
-0.8456715967171714 0.280738216194518 12.769877174905078 3 20 13
6.215025451849595 1.320730083265249 16.858302478267685 7 45 32
-4.386026988114972 -5.17260097808564 12.193792655073954 5 32 22
-0.9600336670737226 0.317725520261535 12.340984840435775 6 37 23
7.479307673017399 1.4935846596942413 17.33979609115126 6 41 30
-4.010446608599581 -4.998525660157126 12.142623868189407 10 59 44
0.28574563539770276 1.099562807667864 15.33208634879452 23 153 110
7.112160399780789 1.5149110755766801 17.1746411149934 3 24 18
-2.7695514004397737 -5.10237722578748 12.916791141241161 10 60 42
4.439176731669366 1.4163990175873966 16.542977501652185 6 39 28
-1.7001625281254227 0.3120659614182849 11.815624321243828 2 20 13
1.2068811711072214 -5.7411331800986645 14.808329221557424 3 24 17
-1.272774070670962 0.4244998891926688 12.18603515131094 6 36 27
-1.1469645203432286 0.4434488444808309 12.164746243849587 5 34 21
0.952530008220326 -5.954569077876032 15.027179605214885 3 24 17
7.3776678975552334 1.7548127181434068 17.415839870584737 7 48 35
1.9997175906134936 1.546821099434486 16.077644767726785 8 50 33
7.222788124082528 -6.45039053235824 17.677759865718958 2 17 12
6.142334643548378 1.6695647438960144 16.627936130212245 6 41 29
-1.7515405168569536 0.5157770714429888 12.041383878969457 3 23 16
-3.7891323807589883 -4.688812101242114 12.148247461244482 6 39 27
-4.196696721393977 5.960970495902464 9.227318844684495 3 18 17
3.9259438190747336 1.7363215573513129 16.407110030502352 15 104 74
6.281721085208426 1.804691884226263 16.55937179704945 8 55 36
-3.8875058694458344 -4.9170069045797735 12.352333003359234 5 30 20
-1.7101684662513499 0.599347618119108 11.955044419061586 4 29 19
-0.982585437494565 0.7148907390777735 12.244706599625358 4 26 17
-3.545917399373387 -5.347563221148567 13.544722042550728 7 44 30
-3.7978087670744443 6.1135431032060925 9.438583069093278 1 12 11
-1.529702992226366 0.76412241400032 12.323881364834106 3 17 11
3.361067431298763 1.8176635327028539 16.160437167698202 9 57 41
0.8939460662458706 -5.502557612470138 15.022537065463695 5 36 25
-1.8927927691850013 0.4082547123807765 10.793512497812065 6 39 27
-3.5450567458497018 6.22640986909302 9.857002948768148 4 30 26
0.46694421005731923 1.8068748201009108 15.479134146794244 8 56 41
1.8874544549827976 1.9737801112476685 15.955498909063186 9 61 43
-2.015807658445843 0.49473032298180364 10.817923934126505 6 43 31
0.6456514393514446 1.8508401614403853 15.360787686720112 6 38 25
-2.779210887070888 -4.926326961497722 12.565899670158736 9 59 38
-3.743529622820168 6.201071052067764 9.199688579586587 4 24 22
7.3287323147801455 2.2550372589229797 16.716897991879506 10 65 47
6.213410700231843 2.1913615145071605 16.331210582312952 5 35 25
0.6931807360588675 2.0740996774605263 15.37450635284973 3 22 15
-2.6261874592708643 -4.778556135441933 13.268564249621642 8 56 37
-1.650533990371608 1.2173942924100698 12.603391041870363 2 15 10
5.661718397613884 2.3163425821312855 16.2434828432439 6 42 29
5.035956244729091 -5.859019517004967 17.02683751778243 4 27 18
8.026812526974474 2.6221602419835093 17.25470173361506 4 36 28
-2.8565346537685707 -4.419804499463416 13.064895787297274 1 12 8
-2.220664110005341 -4.9920276276807005 13.419943833188567 9 59 41
-2.5147725753682537 -4.4881319908771315 13.183537632015074 5 38 24
-2.5990907920269217 -4.4589047682126 13.199416341030345 4 29 19
0.37490654931089507 -5.302476071104008 15.111385005853318 9 63 43
0.5454378861737605 -5.182028267563362 15.238045824287708 15 98 69
6.859930003622754 -5.672134197008106 16.76256543353468 10 64 43
5.061737546153643 -5.191958100201704 17.065627061138535 8 48 33
-4.757548996437044 -3.855855930777154 11.759194300350318 6 39 28
-4.069692247250616 -3.881566856233833 11.859449131454666 2 15 10
-3.8737609920478198 -4.4190330049302755 12.17747699858145 5 29 19
-2.729229016727293 -4.321144442314775 13.112457090351661 6 37 26
-2.595607334481422 -4.342390805621952 13.267277343574463 7 42 27
-4.11687437307899 -4.578747631801601 12.287019315158075 5 30 19
5.067169971217255 -5.461666264446121 16.671208873463566 4 25 17
-2.7514899781742628 -4.03538799630817 12.691796705190937 9 55 37
6.668015045637459 -5.167360780929007 16.75930373093861 5 38 25
-2.407665457100072 -4.353833804835712 13.826147475356331 8 54 36
6.267643448556998 -5.2508548956126315 16.967256750838573 3 19 13
2.8388143211155934 -3.1767426768954112 15.162116958686841 7 48 32
7.325931801054278 -5.39761538078254 17.436102260731126 3 24 17
2.2582382253307487 -4.847457502312919 15.742579781904467 11 76 54
-2.529884001315949 -4.004721424897671 12.962535128266333 1 11 7
-4.853501281265104 -3.4660448948075704 11.620988323608563 11 67 48
-2.8834500201016793 -3.770751494128836 12.4803446463704 4 31 19
6.02070941208707 -5.4148640415883715 17.129598006717405 9 61 40
8.390861873008195 -5.443307618959999 17.942254637340664 1 10 7
-2.3464386780191218 -3.912160899257651 13.096062262838096 11 73 47
-2.297392875289976 -3.0553770251901513 13.059136376846709 3 22 16
-2.499319261278362 -3.855110976461636 12.945931965780444 9 61 36
1.3616636841607124 -4.549011022465699 15.385535864755282 14 93 66
-1.8857764289579004 -6.013954663842192 14.985597777388369 17 115 83
6.281876137572481 -5.080450023780239 17.157875260767028 5 36 27
0.8590414688142876 -4.488597732235595 15.235979227030192 24 159 116
-2.8616232982896013 -5.597061010007762 13.242864817218758 12 82 53
8.325293991985067 -5.14124169186317 17.91333480430854 4 25 16
2.126557829085132 -4.473285278904399 15.67019328233741 10 65 45
-3.3968050739081392 -3.307147459608026 11.459718194473592 5 32 23
4.271969618450903 -4.650668370687059 16.28941087945504 9 67 49
8.271343757361757 -4.848257970942658 17.95577847733011 3 21 15
1.1602094242015866 -6.028973273728338 14.992414952437883 5 29 20
-4.394229906504217 -2.9988510060605664 11.520797768893338 1 9 6
-2.7878873395022787 -3.327217837774212 12.820355000061067 11 63 43
-4.212559093720005 5.593861261376263 9.179752016604338 7 43 41
-4.613003238915931 -2.8710588801678116 11.453347860075352 7 43 29
-2.7337559105132496 -2.032877397023794 12.329461802483975 8 59 44
2.0484282127966233 -3.9993700370427576 15.536266901252999 12 77 54
-2.4414052205702967 -3.336094853662272 13.248688713210727 7 40 24
4.253470767243114 -4.052860142922118 16.1696633025458 17 113 80
-3.9963885566148596 5.695957972882969 9.283112594692994 5 31 30
-1.4782769473853947 -3.1607318117170573 12.992474819158907 7 45 33
-1.0200801929076107 -1.874322036105485 13.574550841791133 8 56 47
8.114153093042317 -4.38938645941936 17.874603178159234 4 31 22
-3.2551609672395347 -2.8807757137819534 11.991459545128402 4 24 16
-6.870435960339302 -2.105241086149355 14.119572045173111 3 23 16
-4.990850251719021 -2.6660436967610717 11.57174698456761 15 105 89
-3.9173765830548355 5.773629994452731 8.910508816987612 5 36 29
-4.280371982435811 -2.796671608186444 12.02865805771488 7 45 29
5.266242190329838 2.6135976539953973 16.222952447626042 13 87 61
2.6710585520266767 -3.6769507958912584 15.656909945656341 16 104 74
8.22220302764042 -4.17156729169189 17.68444970368437 5 33 24
3.1166660339459393 3.0630040442387467 15.964470167760842 8 52 36
2.3396878480943712 -3.601815433408829 15.332314791593676 19 122 89
-4.256379237393103 5.869255085452071 8.898578079408693 4 24 20
2.205226922534286 -3.5802313625733215 15.515255622726194 16 106 82
-2.4321573902560996 1.6810144648855014 9.50929482288689 8 55 42
-2.299970165568268 -2.9195603993774557 13.094538031532029 10 73 63
8.15244657473777 -4.050352350859139 17.860807923200195 3 21 14
-3.3191652875348696 1.5732753657473797 9.285899026446604 2 14 12
2.337611596020839 -3.433707318075743 15.604149999550225 18 116 76
-2.66040004524196 3.505107759844718 10.842170434588551 5 34 24
-0.5463919146106807 -3.0067300876517242 13.893105472587587 6 38 26
-1.9221939608660263 1.8824322124678345 10.340776688571323 8 52 40
8.354096703172967 -3.8869030227724073 17.795026472996753 8 55 40
-0.5544677019520641 2.977504550000962 13.434791903080331 6 37 25
7.827385326996225 -3.833118281308195 17.81061599380846 4 32 24
-2.300782358511178 -2.699630042529943 13.228550055601053 12 84 63
-3.3950795636104396 1.9694320072752207 9.382459238169636 2 14 10
2.383136549797043 -3.16950341791569 15.43819002825899 5 32 22
8.099375933303644 -3.5419563016156874 17.888967240024193 5 36 26
1.8246204109547672 2.752439436463563 15.699511917110529 14 90 62
-3.1662594671094086 -2.297206972725297 12.121978888859394 3 22 15
-0.705810114639294 -2.5357152312556437 13.302594329147508 9 62 50
-1.3744670574960594 2.7853967583752843 12.855655139076935 7 40 28
-2.9227270229876328 -2.4225473049959025 12.950063391925926 7 42 27
-2.2796044311890507 -2.441876215005399 13.248154458331701 7 50 39
6.273695691325633 3.946526733553872 16.035556970386963 9 58 40
-2.657164362324264 -2.4039648086058296 13.283659071266477 3 24 15
-0.7651827743545947 -2.453506552502471 13.507277828900204 6 39 30
-1.5330168188282778 2.4932303622166163 10.768663971463923 6 42 26
-1.7116752363083907 -2.2926145073981825 13.058022151110064 2 13 10
-2.323667884927399 -2.3474385287334334 13.520682221916358 5 38 29
-3.1475312858172217 1.9840272010946456 9.291497684226595 2 17 11
-2.8594055831287988 -2.06254694554345 12.391673712937752 7 43 29
1.7630905239727817 6.249627368275723 9.563062456750483 5 32 19
-2.752096332684971 -2.160411807076521 13.202429776655698 10 66 49
-0.8604275977356934 -2.2146182497699534 13.319576093514705 8 56 46
-3.73741638909619 -1.9310716797633831 11.969999534941566 8 51 39
-0.5917969272853099 3.9167816540393035 13.959469820193789 11 71 45
-1.1276602221284797 -2.2144617502759827 13.46394631477699 10 67 48
2.3099586300495933 6.332114429495785 9.899529225206685 12 76 53
4.05423600928475 -2.637699322964904 15.802682902861974 8 55 39
-2.8811124755092408 -1.9063687372443614 12.16066142086124 8 54 36
-3.7658001159920165 -1.833227766933668 11.861780887825491 5 32 22
-3.6049055398921537 -1.764112597956796 12.104281814749678 3 20 14
-1.366990620189932 6.5953882212621 11.28049100740183 9 61 50
-2.4497321677007773 -1.818717276529277 12.431959211172536 10 65 46
6.706149492802498 4.288661525405846 16.1760007385813 5 33 23
5.119011136058749 -2.5284289286389767 16.80922930024898 13 87 63
5.58795291013309 4.547304680989779 16.019104540641862 8 51 36
-2.584154483289093 -1.7582823860227206 12.254569112560777 6 43 29
1.8640675463210181 6.4699687834959345 9.945631701404263 7 39 22
-3.5436879113590027 -1.550671626719942 11.211797169350023 4 28 20
5.281424064280474 4.387705962272737 16.044783101867136 6 45 32
-3.002535403494967 -1.6690539878036739 12.110449534597622 6 38 25
-0.1342007365125258 -2.001762008132486 14.523891472472009 9 61 40
-2.8145049736890586 2.4293295385114573 9.039550385629001 3 23 16
-3.40044543590783 4.114063276771404 10.56718880500081 3 18 13
1.357784607893241 -2.0409469140022907 15.082239394957721 8 56 37
7.214295169339511 4.574392453546007 16.60936593921569 5 38 27
7.90583327239186 -2.3273519534637503 17.796598797421417 11 76 56
-1.4490251328243957 -1.6458204687920412 13.277590230294582 10 74 68
-2.4914637968153346 -2.8695186497168543 13.535531864186952 3 19 11
7.126025571691493 -2.249421274204167 17.3069512805479 7 45 31
-5.021145656182998 4.356375619443437 11.135980906400352 6 37 27
-3.793249950661032 -1.321516638982517 11.221313610294226 8 55 42
7.284277462643554 4.900837917123232 16.23561611356597 7 52 38
-3.0376035330987343 -1.2728730197756917 10.825185896770208 5 33 24
-3.196313644450678 -1.3425851792854 10.96306823857183 0 0 0
-3.032768003047966 2.6021726422350673 9.054138327458507 5 37 29
-0.9804429149987897 -1.6869659473867533 14.513746832594425 5 29 18
7.846542600535239 5.147079976094284 17.585913493110663 0 0 0
-2.3353315815342732 -1.3951673856041205 12.598189743103308 4 24 15
-5.780298177058397 -2.395122780352002 11.573383162863644 15 93 64
-2.1130592551038543 -1.370776625679182 12.614947890243846 4 29 21
0.1568444193309514 -1.5614337897867998 14.26822945443825 8 50 34
-2.5629507067595263 -2.0528006387644715 12.290621306978855 11 73 51
-0.4373068167736444 -1.5443642239124205 14.38978465926252 5 34 20
-4.247660512942814 5.290678534852061 9.792593582473247 5 33 31
-2.918267238706632 -1.0910206553350315 10.608088144629171 5 30 16
4.377649359338866 -3.5823851862274956 16.43174614885611 7 48 33
4.701321338159452 -1.5973641135507552 15.92330130887659 8 56 39
-4.546934480973364 -1.0067226869021793 11.288239631366343 1 9 6
5.480174842269809 4.760601568963025 16.031005633085414 6 44 30
-0.13512986714633485 -1.0870466032245236 12.992036203659016 13 84 58
-0.5227929090099105 7.611163762293923 11.533470926792097 9 61 43
4.289436353146559 -1.3366332861699544 16.028115977383308 7 48 31
-1.2000194693032715 4.286417900730163 13.270352187422162 5 30 21
-3.543415566511583 -0.8267202421688857 11.241786647481632 7 47 37
-3.1135470302658836 -0.792812093063975 10.684453361091498 4 26 20
1.7120932941621168 -1.5631969180144352 16.073636482258866 5 32 23
6.615265686058285 -1.3115002933649906 17.75018232701993 9 60 42
5.210372709025342 8.74113154383917 14.56974698607624 5 36 26
-3.006767603655164 -0.6798336585338793 10.782472751832332 3 23 16
-4.464903621103541 3.932975549978393 10.839894573670664 1 15 12
-0.6341158051394035 -0.8719516436141359 13.476057873817766 3 22 14
-2.900761807452827 -0.6675458003525808 10.831368864705194 1 12 9
6.112631023537106 4.738697330546183 16.19821716132087 4 30 22
-1.2344395993981363 -0.8019186214560919 13.115932026900103 3 19 12
0.9763219647674525 2.1402425229887156 15.669406514679897 11 71 50
4.743549927045851 -0.9147094111362333 16.031439505352306 3 23 16
7.317651321552332 -2.137665707559136 17.143689816767953 4 30 21
-0.4780250999949851 -0.602932812049541 12.82522837569123 4 22 14
2.3581686238132598 -0.6853428048954096 15.233502013392675 10 63 43
4.503020500959598 -0.8507207978665262 16.34791319357774 15 97 69
-1.3181443566385278 -0.5029549044428803 12.856944646135224 4 26 19
2.097497768049419 5.696255676768864 11.993349220138667 11 64 44
-2.162362638139949 -0.4072751945179832 10.86594316074634 11 77 67
0.44654149415115946 -0.8118275543593796 13.269731196354298 8 53 35
-1.4416701869664574 -0.498032168150067 12.946381842834658 9 59 48
-1.8114279272132956 -0.43838611837117347 12.331039073327588 3 17 12
-2.17966499819036 -1.6021931930168907 13.034848252176495 6 42 30
6.582720597225728 -0.7037604126404323 17.616513510129256 12 84 61
-0.7590570640607565 -0.4245111570936894 13.248703343296269 4 27 18
0.5287416328202545 -0.5922001807974427 13.218658076541145 6 35 23
8.106221724533649 -0.669985262530928 18.06638291788805 3 23 18
-0.36150929651682856 -0.3962546466836421 13.331168821304583 12 77 50
-3.2151545722110364 -1.2588268607839015 10.988830677586567 2 12 9
-4.395267747037695 0.45273767425617817 10.609021512093111 0 4 3
1.7300875353400083 -0.4389758034660189 15.196098733419642 13 83 55
-1.2832941722006397 -0.3280198271586594 12.837440723748768 4 29 20
1.6586107574819293 -0.5450051505641913 15.45828614280494 9 58 40
7.5266245113904215 -0.5431317592456278 17.73640231477442 9 60 43
3.3221380873289132 -0.38457042316461987 15.71389873469449 11 72 52
-1.9835450981439837 -0.6672977682791341 13.137231727751505 7 43 29
-3.00625790508893 -0.10897314877039233 11.00136862839291 8 51 39
-4.454559627791696 -0.05070745732489601 10.003709514917201 5 40 29
1.3241275829499346 -0.01095144500712808 15.64453465972868 11 68 47
4.920097787973833 -0.22460499382733817 17.11154889898547 12 76 54
3.201422416675016 -0.17826620390520026 15.695305746488945 9 56 39
9.69273863081875 -8.718890395817608 20.033120792033607 6 44 29
-3.317900750761966 1.0435106370622895 9.84043259973316 4 25 19
-0.5596535104731581 -0.1001554838944474 13.327270410064457 10 65 43
-0.17712316317439292 -0.0189507329652141 13.381018510980931 12 77 52
3.9963205169235114 0.15265956907674294 16.607972949363102 9 61 43
-1.2941200985962182 -0.0018352182848657694 12.371716195154 6 36 26
1.4412543708764394 0.025081092416815776 15.567282071765412 8 50 33
4.545574175842926 3.070751430264105 16.065767669800834 18 125 89
3.4022074999964893 -0.22328023484743065 15.575627475055567 8 52 35
-1.0795860781894557 0.07044836044720815 12.497791490840225 8 47 29
2.616289532001091 0.02877156988833851 15.589342689408685 5 31 21
-4.044352369225871 2.684872506538131 10.903960449516672 1 7 5
2.9497587771613154 0.06906591945840224 15.957107474235228 8 51 34
-2.650007408112974 0.30206974528415154 10.657602392347508 4 27 20
-4.536561648970826 2.190769306888583 11.077764727412326 1 13 10
0.8556602609999225 0.42072090627998016 15.566804469511531 8 56 38
-2.1895316974790084 0.4058331700678144 10.93716875910892 5 35 26
6.493929910610459 3.9985469157350475 16.051727199155565 10 62 43
-1.0997998811916163 0.47354625547394047 12.224634055100928 6 36 22
-0.9058155645473748 0.5336718097583779 12.18197111678381 9 54 35
-2.359297161414654 2.3424739242171935 9.71637380637667 5 36 28
1.5493082303546646 1.121284011765941 15.752005767495078 10 66 45
-4.247790627549673 0.8932493969253388 11.007861074991292 2 16 12
5.466956162442506 1.2348704911474209 16.7993712966592 7 45 31
-4.486898396588086 0.9529897772420008 11.086315189032957 4 24 18
-1.2948574896508278 3.277873218623037 13.20560515375051 4 30 19
6.270563002862653 1.27252905919025 16.872197019799252 7 43 31
-1.2499927828368043 0.9505110559919454 11.333658879280705 6 42 24
7.022921986177181 2.903904161134225 15.884627984414116 8 50 35
-1.8026349400135109 1.0918778292909852 12.653442939957712 5 30 22
6.4515692511575695 1.309900156286979 16.646527072719866 9 61 42
-4.865994814419189 1.7458920062361498 11.175456542086637 1 10 7
-4.069142602086399 1.0418343541950108 10.977344788501709 1 13 9
1.2835607419223127 6.579473577304631 9.994923603998513 11 64 36
-0.9212405277868755 1.1664996565399828 12.216559670664907 7 44 29
5.973153417726906 3.3592195195781613 15.859650163763984 5 37 27
-4.464022852813485 1.1625947787567004 11.17262104628658 8 48 35
-4.931716394517465 1.1857399713078902 11.279852009179 8 56 43
-3.034659460807432 1.1060442985650107 9.925569328863531 4 25 15
6.0278329468166 7.59751715230156 15.505577556354126 8 51 35
-5.989676726896712 1.4019233324546891 11.747656387695903 3 22 16
-4.57281544968497 3.1389329743319347 10.84194047289511 2 14 11
-0.9138131053726265 1.472404204385212 12.532464328151406 9 59 40
-1.849150263796312 1.325304813640088 10.391189493662203 5 31 21
6.001591341987243 3.295815607373469 16.01494954479579 4 26 19
8.287154618800399 2.0620895703009694 17.560010462076526 9 59 42
-3.966473253722737 7.13229294867662 11.475888227240763 4 29 22
-0.24706003699345505 1.9190260402446944 15.035608381934404 23 157 118
-2.5900754185109 3.160105861384457 9.763790276602675 3 25 19
5.401019870254063 2.1139830017747268 16.44008750564577 12 77 53
0.7700935504289473 2.123315596059813 15.395883177430811 8 54 36
-2.9241648529979107 3.494816970906745 9.657228579046736 4 26 20
7.084108853084995 8.17410213554281 15.575295038672468 8 54 37
-2.333716123434799 1.4537572982128673 9.554716937283189 6 43 35
-3.910002792155515 3.5455363121067935 10.392157884057914 3 23 16
-2.126020462469928 1.5164065779291724 9.921518922508248 6 48 41
1.2177440727000322 2.3680508873293475 15.525877609463723 11 71 50
-0.4360875566556993 3.6668850700906357 13.582956758496662 10 70 50
-3.1206453907967258 1.566788312687751 9.399909878099551 1 10 7
-2.8435715119870886 4.3698845255881995 10.787802164668824 1 8 6
-2.2839953648501266 1.5912896759504371 9.419853018159406 5 33 24
2.2383145138270986 2.6524429846178315 15.932331965379504 27 179 142
-0.6412903585624697 5.095178510509745 12.834721499864088 11 71 47
-2.227169482430677 1.6558238432172647 9.539197467450588 3 18 13
-3.48180320993237 1.6834597328768508 9.39594213391158 1 9 7
-3.0006819063550103 1.777046200283242 9.374705450752861 3 18 14
-0.7690321507507315 5.465596346929976 12.534878966947849 10 59 41
-1.5723761172724733 2.201395316613013 10.797743439378124 6 39 24
-3.396146209798437 2.000777781598748 9.437874311915778 2 16 12
-3.436716374705405 -1.0350349144043134 11.333430625263738 0 0 0
5.971214379448605 3.2366572507093276 16.008311104346046 9 61 44
3.236632342891496 3.435861056352064 15.944603241396797 9 60 40
5.356621056792615 -1.7370284941986813 16.92386914439843 5 34 23
6.360258026530977 3.4785178888888297 15.883704419409113 8 50 35
-1.3385889332042795 3.1276815234448034 13.080465626277093 7 48 32
-2.2841707899492456 -5.128340345518113 13.247786886774094 6 42 30
-2.0106870863487853 2.437234363653831 10.108398712491102 2 12 8
-5.3146103980826345 2.7194010992457947 10.642950807843976 4 26 18
-0.4068669169518393 -2.102353426056725 14.33854543598441 8 49 32
-4.833692703817204 2.8077276835340443 10.726071557271874 3 17 12
-1.2326778097097042 3.4782544708217285 13.221789598859297 4 30 19
-2.8806787503127147 -5.194901924134204 12.856167762276106 7 52 36
-2.9595647258941726 2.433949649025066 9.00822603343062 2 13 10
-2.1148000659083523 2.7369624629781986 9.856342565686393 5 36 27
-3.511017236582152 -5.112739021062863 12.755005757768203 3 22 16
-1.0416823788064387 3.7684894947655985 13.323922428345726 5 31 21
-3.06552800075956 2.6004119225537967 9.04213727670039 4 30 22
1.7525885675813218 -5.290541535716251 15.35317730648497 8 50 33
3.689103214365515 4.4593228410791514 15.828503146543838 20 134 100
2.0067794132719605 4.416190055799499 15.447182890154606 9 62 42
5.737666454691177 -4.967883509299737 17.27973081361308 7 45 32
-4.88707318584654 3.3306099902045183 10.867773611160658 2 14 11
-4.244952805203334 3.3552893628620244 10.884189658813318 2 18 13
-2.387961161884627 3.0389826678407155 10.287932770523582 2 18 12
3.896163801564022 -3.9162871038490934 15.885941334981991 14 97 70
-5.929616980680125 -2.3455522188183284 11.543488242451426 12 79 58
-0.4041590671833135 3.1786473974909257 13.353398708675456 9 63 42
-1.2549784643239483 -2.5670110867560476 12.792766058278263 9 64 45
-0.34990641653871646 -3.208680176656237 15.371070004549853 17 112 82
-3.1573946134570923 3.5858451565377982 10.292624034183328 4 28 21
-0.14288288451880266 -2.9671531152279247 15.32055420101617 5 35 23
-3.2570249605706714 -2.0280974081049057 12.401772681708138 11 68 48
-3.2620376917502063 4.041067413471977 10.663067205288772 2 12 9
4.78423615717554 -2.93886350551316 16.654087915575676 9 60 42
-1.1043012212143462 -1.7832150741613366 13.541269706853285 9 66 57
6.663066129479623 7.052888293799073 15.612645470644196 8 56 41
-0.2604601663851796 -1.6479463734302437 14.48699903903413 2 15 10
0.3825425662523804 -1.2604593236400676 13.769765043560403 14 96 66
-0.3805095570815071 5.20214303961386 14.051425093192655 3 18 12
3.7756565343675392 -1.3725975058037942 16.155328235545912 7 51 36
4.70065939622123 -1.191892514407189 15.880091057553122 5 35 22
-2.2017670735527646 2.893306409447845 10.00018946627352 3 22 16
-0.8058985815769252 -0.6405807578322766 13.152845356773181 3 23 16
4.892560339575914 -0.8450201015615288 16.032842922421224 4 31 20
6.005429532708539 2.3451139393331504 16.25261397632903 6 41 29
0.20732237899126774 -0.3779739886872223 13.789484315861937 9 58 38
8.208846973193756 -0.5209514134086182 17.932816231908284 11 75 54
-3.529099297594591 5.319200646801363 10.424427817422925 3 22 19
-3.9358351365826922 0.3881144643343819 10.82708055435764 0 5 4
-4.443107542079425 0.42263977327661983 10.824176409083345 1 8 6
1.328334302506631 5.486143313709004 12.14585030218721 12 75 61
-1.9003668453585818 0.4655229488747423 11.175648146227335 5 35 27
-4.302378534545149 0.5671472052115096 11.084201869451983 1 12 9
6.05109359089205 -8.77112638294817 19.027967651516636 8 54 39
-4.583292366584945 0.6533701863569674 10.83088156693098 1 12 8
-3.255370678737725 5.445908337558514 10.765541819039347 4 31 19
-0.2982074331426562 0.503650170042728 14.024332715121846 4 25 16
-5.579222422816417 0.7941596203381218 11.707597107831909 5 34 26
-3.480965629539007 0.9937587939164843 9.871047694241266 5 34 25
-3.663549295924268 5.418779574323546 10.137410295936247 5 32 28
4.050079729716304 1.011858761823613 16.54059903257946 7 44 31
0.7950362615977418 1.083634171009274 15.452458925058147 14 88 61
3.222678236867375 -0.31690738241361915 15.604657197301956 7 46 32
-6.066302386251694 1.9873790274300434 11.743188836340781 9 57 45
4.766500195214938 2.2891490759712414 16.222090126014155 14 90 60
2.842202161025523 0.1937338719651278 16.110494576371494 6 41 28
-4.855827308598353 2.392625652378532 10.82592380210853 3 20 15
-0.6098955218731008 3.0208040369286056 15.005565335720808 4 23 13
-3.153876147429342 2.333495666068874 9.126610413088027 5 36 25
-2.932238477993186 2.4851824050543687 9.092847036882464 4 32 24
6.155798319703854 3.3788007649673273 15.828725550058422 10 66 45
-0.7463022511116579 2.162686052657964 12.511718171050614 5 33 25
-0.3358844374840454 3.4748112257630095 13.942610099576651 14 90 62
-2.148244555996597 3.228442339316972 11.312161324311006 1 11 8
-0.8962684115636508 5.858419904010185 11.48035279427093 8 48 34
-1.2370633063179899 3.8039533841203492 13.561699613554392 4 25 16
-5.148377937876138 3.510451278123098 11.365988997462232 2 19 13
-3.5323221327676424 5.68381516759897 10.149000641506202 3 20 15
-4.281683043497479 3.6058131562450115 10.95940874629325 4 22 16
-2.886225194275334 3.6064360472096646 10.540735394800768 4 29 18
-3.331855928174847 5.775737849997078 10.126949514947752 3 22 17
-4.2408205785677735 3.718411077880654 10.814462602557255 4 25 19
6.486554988242256 4.8106817176582 16.12277274832787 15 96 69
-0.5935735286498531 6.139496628694262 12.19530430962094 6 39 25
-5.442336414536059 4.004698483874213 11.25226584803372 7 44 31
4.387452324743321 5.123735889688987 15.74083505819204 11 75 53
0.1029202132455612 -1.1589373802772331 13.156259483946073 11 66 45
-2.4414723877323836 3.9896253453713304 10.794715504295441 4 28 19
-3.1158644299501796 3.978934790742333 10.62291426753392 2 12 8
2.915891137305601 -0.7957119237650373 15.419244409263717 7 40 26
-4.996951883814506 4.1668197407767895 11.059836796108167 5 34 24
-3.248046513274298 4.097325874055059 10.589374779266821 0 5 3
0.24460751829524233 -0.2237318271819822 14.155779928174226 8 48 32
5.373267926505964 5.46763771555432 15.946456310774161 8 59 41
-3.5165668029958184 4.120032179565063 10.422324211597072 2 17 13
0.0632575974483849 1.671424601181699 15.247368527517168 9 57 40
1.9826849860164033 5.37307304700461 15.095854907928077 7 47 33
-2.5515997794836283 -2.334692280576414 13.493241580836735 1 13 8
-5.791280624391748 4.415266482905174 11.212387368552555 2 12 8
-4.844320589039912 4.426010152245141 11.250536915129171 3 23 15
1.0983749722993406 -4.265330176535398 15.220131938153687 9 57 39
-1.1252058286543034 4.790124529967041 12.524103105206715 1 8 5
-2.7473558507922045 -3.7406737113657886 12.838121642135228 4 29 19
1.9918397999398607 5.632521072136528 14.918908150259007 4 32 23
-5.04595547602051 4.503222757381355 10.907807339343528 4 29 21
-3.7082927344772387 -3.4723760166442292 11.492294776552857 4 31 23
-0.7493260137063986 4.860730320388724 12.163210450384694 6 39 26
-2.704922239982853 4.544757997856847 10.90345224286385 2 18 14
-2.6322860603169014 -3.057623068832068 12.857417629922272 4 26 21
0.6688217497179516 5.021496292304059 12.506884953254964 13 86 68
-2.083316509874288 4.945462592876199 12.033307547296827 3 21 14
8.130992557343113 -8.178837199124649 18.7358871196513 4 28 20
1.2591775355175925 5.106591582750646 12.646367206641035 8 52 40
-4.195217909054331 5.362745253882265 9.349865714665567 5 35 29
0.8388057968848814 5.0986106077414775 12.512970345836095 17 115 91
5.309754469043628 -7.833752062620114 18.793912068803966 11 75 52
0.4535639097897629 5.132031838386126 12.519402001492457 9 57 43
-4.046835937541378 5.381248920763028 9.438518320628091 4 23 23
1.1171297126108046 5.153371909034142 12.615072597481605 10 66 50
5.4219801296012164 6.054887855241519 15.861476329124201 10 66 48
0.9932174042153762 5.138266770345865 12.49973125210815 12 85 65
-4.191870685769946 -6.301624906977214 13.315888095827553 12 74 55
1.3054565798933175 5.1380283027798335 12.54129733558555 17 117 93
5.391817329969016 6.117537226036413 15.871769702540535 7 51 37
7.485998991074069 -7.291214080726926 18.459654852687216 4 30 22
0.3692722426941109 5.268634301263621 12.602052368771766 12 78 60
-5.4532567950451645 4.915246301041519 11.288884637686468 6 48 41
1.1289066201509048 -2.2003077627309082 15.072174351345184 12 81 56
-0.5827179177261412 -2.7116743580972678 13.871357099771854 8 52 40
2.6496410591342743 -6.669786297178328 15.373091523173871 7 46 29
-0.11055151277808398 -2.366826676577692 15.092683067287243 13 82 56
7.824845402365055 -7.862077258702712 19.017348199943974 3 27 20
-4.0347551914203725 -5.427827293913651 12.068328266183796 6 40 19
-3.6937647581072346 -1.865886380156615 11.788878911888432 5 32 23
-4.413981838163573 -5.348334294110167 11.961058076576325 5 33 23
2.6642107253640046 -6.424793542560632 15.320412453720708 17 113 64
-0.925414865138976 -1.2503874197356089 15.143162779892323 15 101 75
4.051477910478752 -7.135805964952308 17.64649923712482 1 13 10
-3.09648863521858 -5.700056964724876 13.366541856474711 9 58 41
6.185207983257802 -5.721509089720854 16.71224378471667 6 45 30
-3.6166129215822727 -5.228431046019518 12.068368875962447 6 41 26
-3.0189972497784536 -5.601701466510413 13.365857648272888 15 101 67
-4.270420048348103 -5.009234764165241 12.186739101134721 5 35 25
-3.3316574073014817 -5.311471745237354 12.6174747712244 5 33 22
-2.496739087661281 -5.900927014215089 14.64035100860825 5 34 23
-2.3745901306066832 -4.995389993931223 13.39452554876965 5 31 22
-3.2334513257497823 -5.46779704539478 13.342325032993907 14 93 61
5.556087941445891 -6.48544162247379 16.843742028554903 5 36 24
-2.6776710135179997 -4.577481790180386 13.234410284210131 4 31 21
-3.4045254234718607 -5.458731567692203 13.466338802383037 7 45 31
4.359580909353237 -6.576771768515382 17.55263673066455 10 64 43
-1.4010511319668966 2.863473394553708 13.241140883017515 1 9 7
-4.143267182808653 -4.960375229054419 12.19336794409315 9 56 35
-3.591400973473664 -5.0981021979637795 12.678025368819123 5 35 23
-4.890369139255919 3.4691382945253575 11.036318837938047 2 16 12
0.27841806972417465 -5.771807294154758 15.024891430574502 5 36 25
5.372065867325703 -6.321825960132385 17.201087376996014 2 20 15
-1.8354148843159372 3.4823664440791853 13.166688257998121 2 18 13
-3.1665116596514182 -5.144293686245446 13.097112715234427 9 57 37
-3.935543117280777 -4.8267880446341 12.21122675392795 4 25 17
-3.5113683216218243 4.1172972927984475 10.549902247171035 6 40 31
4.794078293391913 -6.340765400416739 17.632703800066647 4 27 19
0.9563460036956819 -5.514622399899865 15.054581352533004 3 20 15
-3.0216317602629585 -2.1981879542564333 12.956661496749907 2 17 13
-2.65709375152208 -4.873266946516491 12.807503937464949 12 82 55
-3.00845932744804 -4.861033272022091 12.93460657319887 6 37 20
-2.8427047986799736 -1.9566892910083942 12.276389314273533 5 32 23
5.330608375818786 -5.8821532702292 16.88498692232669 2 19 13
-3.6615159183373844 -4.609353273237084 12.149192045996273 8 53 35
-1.4400436740235842 -1.306235327196736 13.53358788612232 4 24 15
-2.7386869803341276 -4.841494196555459 13.004772871696016 7 44 26
-3.139228739570462 -4.759523693253536 12.852531038192433 7 46 30
0.5571239525739701 -0.37489578520095734 13.898988317725472 15 97 64
2.9627623726493044 -5.586300626299105 16.176540659510618 11 72 48
-2.660298091189043 -4.622732028485423 12.697907807399623 7 47 29
5.458284774704222 -6.81710716281912 16.906560443626006 8 52 35
-3.1448685296106498 -4.654817990726782 12.969554312653495 2 14 8
-4.0183808601027815 -4.251361243807583 11.960759309498188 13 84 62
7.15312242244972 -6.644359940753798 17.905248678492985 9 58 40
5.933205655488824 -5.370318354353596 17.209445490023203 10 67 46
-4.165268107373551 -4.002700790576646 11.688603933813024 8 53 36
-4.210015943329052 -5.460212511826374 12.065550767796875 4 30 22
-2.497071095487418 -4.232892522057075 13.902857697025908 4 25 16
-1.6154981101324828 -3.7391498220320893 13.23440815773119 7 48 37
7.522740636049579 -6.033020197232901 17.040117980662366 3 21 15
6.2658916206049335 -4.014007775667205 16.985366862696765 6 44 34
-2.9790290775190167 -2.9884708372224402 12.672964005302378 8 52 37
-0.7812248668715711 -2.78290127035728 13.703137321445443 11 77 62
-1.5476695375775322 -2.4947153885460756 13.23759510758088 4 31 21
-4.1655348700810295 -2.17161841087018 11.871037947410171 3 24 18
-2.449637966450426 -2.2264612556109595 13.541638054894683 3 17 13
1.8175159745821916 -2.2261611767665213 15.044989209604866 15 100 72
-1.6208068914924685 -2.053764946374054 13.09960126659006 9 66 55
-2.0601813021512516 -1.940527437532545 13.462866700490633 6 41 32
-2.5286369247045357 -1.5654243755819364 12.708704146625696 1 13 10
-1.607595313378928 -1.4991309384406715 13.5313458395539 4 30 20
1.9072411077287703 -1.2288218031907658 15.199978433662844 11 75 51
1.7373516644393556 -1.1989448194881123 15.098182254462099 13 84 60
-0.3977804966746984 -1.1201090826242843 14.136659127048292 4 30 19
1.8922055633547126 -1.0888480749997644 15.674885391545947 11 69 48
-2.6080119569680336 -0.9330486654704291 10.787756160215146 2 13 9
-2.3877183002517177 -0.8990061197536381 11.171962784747635 3 24 18
0.3351193723325553 -0.8516262979735991 13.140449428725098 4 28 18
-3.746786074976241 -0.527568827039997 11.175094115395302 2 16 12
3.592210804313483 0.13929783319903044 16.364746884677714 7 43 29
3.1330962146111356 0.3915339894387362 16.19509335654224 5 31 20
7.3605711398712605 1.0065297840044725 17.357570622256414 4 27 19
-2.8736582418638323 0.981295449876121 9.74031312379479 2 17 13
-1.4322180203039057 1.3734053327301323 10.994559682071483 6 38 26
-3.125137588219889 1.4327408339779928 9.863339530877205 3 20 15
-0.8153365104473336 2.3897700201772074 12.885732586371558 6 44 29
5.63280947393135 2.288976671872375 16.462860899576096 7 48 36
4.130648376276425 -8.43848659145426 17.60246466882623 2 17 13
8.106383389578163 -9.065169377878712 19.760827545253772 6 42 31
7.560377572442247 -8.968738416015011 19.687047190394058 9 58 40
4.28913484326176 -8.40658341335816 18.151873385734785 1 11 8
7.6113333597402235 -8.65612729539243 19.614114977161307 9 67 48
-3.5100893884074047 -7.149927869656416 14.321731224632423 7 47 33
2.4577651192377994 -7.427289210107579 15.369335146719333 2 18 12
-3.7870987163467134 -6.984959055673274 14.313595779373046 2 19 14
3.8106915070396674 -7.864150256334582 17.512536962654547 12 83 61
8.19010097634062 -7.95409616237659 17.849354891836498 8 59 43
-4.4867137403806385 -6.83656217668641 14.035067331364267 10 61 44
7.632714435417746 -7.960817768138893 18.65292267231761 5 31 22
2.0537142779501365 -6.829280846404673 14.99757795543 16 97 64
2.7041700821850863 -6.838738963665172 15.336833334550537 11 71 49
-4.956209405952482 -6.151790477432728 12.727592028261679 10 65 48
0.8276505823513365 -6.639258818499094 14.606680836910355 3 19 14
7.706582718428698 -7.100021173884677 17.097261210077885 2 14 10
7.002583196593225 -7.192019496485139 18.089017131081448 7 49 33
7.714184175414319 -6.838121887761902 16.30397089693798 1 9 7
5.093486139692802 -7.207527725276426 18.116117335974522 6 40 28
-4.622188005351965 -6.093724815045128 13.159254536976768 8 49 36
-3.1660385969932636 -6.094707986787519 14.042129517513017 7 48 34
-4.083506404285776 -5.561438073598282 11.932766870391264 5 35 22
7.596003104134636 -6.577747665500349 17.33366313134626 2 16 12
-3.8767886613672893 -5.539279483912683 12.04647190921842 3 17 12
7.730513655608296 -6.22255194817002 16.221701080242866 3 18 13
5.284992382030064 -6.434891501581694 17.633428611375482 7 49 34
-3.285090314869236 -5.604259883961751 13.199725149404047 8 50 34
6.7408561724316876 -6.224110317956622 16.832703561160407 8 50 34
5.084203794091668 -6.175496524072564 17.554562100668566 5 37 25
-2.5705973992943156 -5.42495616162998 13.33206895065704 12 78 52
-2.7822308834032476 -5.235431895580994 12.826861344871041 7 50 34
6.888553707615203 -5.724247658330018 16.67446954314416 13 84 60
1.0415604101552622 -5.517175003782281 15.307622283928604 10 61 41
5.269324262269597 -5.519594791300806 16.329019983220665 14 91 63
8.514526635525531 -5.645599824067645 18.256245771874106 1 8 6
8.553321124227763 -5.372393900388946 17.959305091330982 3 18 12
-2.557979347369267 -4.820450984391879 13.032970865356194 2 14 9
-2.7411928207980263 -4.476775284334573 13.036027176216697 3 24 17
-2.141676878873906 -4.469426534164496 13.350945484272644 6 39 28
-3.8746005436413316 -4.191853948786855 11.810771895744654 5 43 31
5.450835106425409 -4.303991963982469 17.015440232275004 2 20 15
-1.434035005431669 -3.781495987354479 13.04105514327165 10 73 59
-4.224354054447475 -3.7342647541625547 11.735996327674526 3 26 21
-1.71974819840371 -3.641409598882316 13.125287210361105 4 25 21
-1.5548277502957617 -3.4803042913675246 13.013421378081224 4 30 21
-1.8451464770266692 -3.436746709345304 13.241795152131738 3 23 19
-2.1766657030543426 -3.2614067247521006 13.179649701680098 5 39 35
4.34484103031823 -3.1371542013620344 15.139461128995169 8 57 35
-3.5258472169816066 -3.2398844982021853 11.596789037155093 2 16 12
-3.21187215812119 -2.8289246038154747 11.515453756985258 1 13 10
8.01687161717276 -2.070251578324858 17.8507107292011 8 59 42
-3.0295725170366694 -2.458366903212527 12.545322624455352 2 18 14
-2.201887721117452 -2.139427970009298 13.339657346394802 8 51 42
-4.364554266323625 -2.3750258638067714 11.312245707729227 1 11 7
-2.5477920898452715 -2.001915842357066 12.542482902770868 4 26 19
-1.6187348422093866 -1.7364975440199755 13.24579924539804 10 69 57
-2.780591399772069 -1.811236390052108 12.149516256041748 5 32 24
-1.9889181260607995 -1.350276360208451 13.597059387997591 0 5 4
-3.557210846227221 -1.546989611177499 11.81366687808543 3 21 16
0.2707319875056675 -1.1255687592089447 13.439142805162778 0 0 0
0.4923283645877751 -0.7652636812567599 14.821294022883247 12 70 49
-2.606247383298264 -1.0242185218711306 10.877747103530409 2 18 13
3.456268098879947 0.7347732507052491 16.66597538241856 6 39 28
-1.7094659929823741 -0.3150640545259531 12.373337121754599 3 21 14
-1.080076985987051 -1.1694194676081089 13.285843573411139 6 42 27
-1.30413555697171 -2.901802742303413 13.496164035936731 5 36 24
-3.538775498047365 -0.6597848713631421 11.085278935352392 1 10 7
-1.1569226403281978 -7.859166769284835 14.020116851657832 8 54 40
-3.761115825478941 -5.57877853146104 12.273219471384463 1 8 6
-1.309704412261311 -3.8409426345491013 13.444737692157732 5 38 29
-3.1489887054711567 -2.945736213475646 11.608614232245122 0 0 0
-0.908704704558544 -2.397182485067376 13.533701803255493 12 82 66
0.2221721106154252 -0.8616214376986544 15.835393132809141 8 49 34
-2.2155540737730557 -1.700454478440326 12.581350524153219 2 14 10
-0.9592466927409917 0.06507253030176108 12.619528333814355 0 0 0
-3.464819544964805 1.6512529715046105 9.408262983585908 4 31 21
-0.9651881145692843 1.099619438615927 12.134521571154774 8 50 38
-0.9450744165499889 1.3772853637714713 12.432373407316485 6 39 25
-0.957851198525051 0.8405405592051163 15.432396731104843 6 37 25
-2.8940035298364584 2.293660290329975 9.16010460977496 1 11 7
-2.5570379942562114 2.3290726589536765 9.65107518709884 4 26 17
-0.8838315538029712 1.9025495179652214 12.385198378168377 8 50 35
0.47543637037240133 1.4367999977889245 15.50311751974458 11 71 48
0.6599884089534928 1.9267442449858025 15.793444647921795 5 33 22
-2.4154752496276015 2.8103368925336802 9.63204282754015 5 35 25
-1.5598970115274708 2.786695517267603 12.629250901510732 3 21 16
-5.2930682876495 3.257669584981149 10.854034629169675 1 11 7
-2.8080831305699676 3.3602504839382834 9.527141643809182 4 29 20
-2.3703092136791755 3.4171513426601368 11.619665712935538 1 8 5
-2.6741968492103063 3.7031102617826384 10.897478583154518 3 23 16
-2.3741431180179258 3.863967170409056 11.023917450340827 2 17 12
-2.140409437484502 4.147643831221371 10.950508031872406 3 26 19
-2.7719593864518046 4.304602181015529 10.91061003428175 2 12 8
-3.269928669378847 4.554040013560433 10.573710470670479 3 26 21
-4.138349872419934 4.738168009717251 10.583331169915846 4 30 23
-2.6058022128912697 4.878610805613134 11.092818410507597 4 29 23
-3.480212070823149 4.977492065497055 10.746036403164013 4 28 22
-4.447834057948658 4.961239515743895 10.204649358722783 1 8 6
-4.004907559188419 5.025846588413547 10.336393757699733 0 5 3
0.8576458927321404 5.323376807536405 12.229467010821097 28 183 137
-4.162683972436481 5.1678690004673875 10.03112711941633 2 17 12
1.3080856168972663 5.370819513302671 12.361357953509264 13 89 70
3.3728734284163595 5.778008101673988 15.56073374273295 10 61 42
0.4466628414650698 5.454582897430544 12.342157258730248 16 102 80
-4.308601363822355 5.2131407250552595 9.457332323492583 6 36 32
-2.6830312446261297 5.473627936545595 11.75458356875427 3 24 17
-3.925245449324247 5.289898879748815 10.007354390866755 4 24 18
0.4971940221671735 5.5503560926204525 12.417211237646576 9 63 48
-3.5032483144315494 5.4298329452892915 11.087930473819046 2 16 12
-1.3313310159868088 5.564321021187688 12.258681427964932 8 55 37
-3.9650795279974163 5.314187184624695 9.762769425292912 3 19 17
0.8715800208404315 5.591040634643518 12.269931105604726 9 57 44
-3.7700818790942456 5.37170619956702 9.90955715743295 2 15 13
0.5958391197349593 5.667245155244091 12.473883759700545 10 66 53
1.2474189830493154 5.655818537586988 12.105990480033427 4 27 21
1.882828382189234 5.7419308319869415 12.86694460078933 3 18 13
1.7066002868199353 5.4391485945590965 10.432285362356168 8 53 38
-3.8613263032803924 5.341424434531094 9.231866581970468 3 18 15
-1.844442127233461 5.731123626131858 11.999711480976726 6 38 26
1.1232138208918325 5.7156033265331665 12.188382169624088 3 20 15
0.34884186872012235 5.808197407764343 12.403814357370187 8 45 31
-3.675338958864884 5.531318322262276 10.131629156099526 2 16 13
-3.421201394806728 5.538692476253882 9.813890902176283 4 32 26
1.249781331481211 5.610667027608159 10.535817864708887 7 46 34
-3.678364518359237 5.496924381919577 9.455287733946589 4 33 26
-1.9554914926250149 5.934236786110283 11.931936460539536 6 41 29
-1.1073197032391608 5.854498783724713 11.46993194527397 6 41 27
-3.511409070897608 5.525800536170271 9.27344193537386 4 28 22
0.9346687184345883 5.9534414795954085 12.248874109989407 4 24 18
1.0107573489031803 5.671701830299005 10.579772061462151 8 49 35
0.9637002596034753 5.691594782174247 10.588899598056832 8 48 33
-3.2772998184604045 5.954393295375613 11.58252470942565 2 14 10
-1.1593402046868584 5.947493585943917 11.448438574048836 5 35 24
-3.906036706685318 5.630629236170689 9.501088310987587 4 22 21
-0.8562743265998275 5.976029118880318 11.436502712812587 9 51 34
-2.336945582073536 6.08688682084256 11.918410628735046 3 20 16
-1.9031337270336444 6.098247854614174 11.866304563286334 3 19 14
0.776356434730357 5.903801425586037 10.825482502737588 6 40 29
0.8679874003869824 5.889371344327444 10.50173729703482 5 34 24
6.538582887552443 6.807533216741849 15.676749165214037 10 67 48
4.538613262980643 7.219752983312125 15.486659146834217 3 27 20
-1.1137688628502884 0.9959293276805079 11.296814224161981 3 21 14
-0.9385238948395344 2.484061216706493 12.052914578381587 9 60 44
-3.1153391206170147 2.816709352608465 8.978269949905023 4 27 20
1.947493049829654 1.6102801871369925 16.042186211346962 10 66 44
2.1180250641755647 1.6330024638300285 16.19843806282007 8 56 40
-0.7514518961771407 2.243925592795519 13.716890619833425 7 52 37
-2.330615623191883 2.9029741177752117 10.355493533162496 4 28 16
-2.5316737329843733 3.0797630522447674 10.149039436346841 5 34 18
3.33480972943684 3.033614781669742 16.00314670355689 9 62 44
-1.1389272842747582 3.633155268487044 13.107450465848247 3 24 17
-0.38044170998953314 3.558387982416597 13.887201486236693 8 54 34
-4.48400258562528 4.083037760037875 10.977303730244016 5 33 25
6.282343271129525 3.6779928911884032 15.920957932067662 17 112 81
-4.703702475535735 4.105527679508311 11.130227569851947 8 53 41
-1.2309361257701916 3.93615874253076 13.431349931049322 5 35 24
-5.697929514420434 4.4486199652620275 11.318738830519946 10 64 44
-0.7251192624304852 4.799252519684574 12.353314907755282 6 34 23
-2.7394616554612914 5.204317491110908 10.99622774509649 5 31 22
-3.6194207181943243 5.217731615791488 10.488434710301863 4 31 25
-3.564343861332084 5.225243397470512 10.758473201390405 4 28 23
-5.518001943687117 5.36203296025908 11.255984997092142 5 34 24
-3.0437249252213268 5.580339916555024 10.803591873006507 4 28 18
-4.448982536018514 5.540761748171397 9.510784388828556 6 41 38
-3.711765193089371 5.656110637775969 9.31612192340689 4 27 27
-3.6238472641268387 5.7016126363285515 9.56793901629003 2 15 11
-3.599763207057805 5.763391600016634 9.903580537250244 4 23 20
0.38439529846331566 5.966980505501505 12.42235820802849 6 35 23
-3.530214176919124 5.737495457964872 9.093463964956987 5 33 26
-4.15078263519184 5.766998982956727 9.099740029776102 4 25 23
-4.284426236841912 5.80206581287794 9.156158356619335 4 28 28
-3.7649252428785864 5.842246626070441 8.932630592794718 7 49 39
-4.282678695048614 5.896913636266408 9.215564208971497 4 23 22
-1.4747625008163583 6.165660363390021 11.832910991016384 10 61 45
-3.502062762217739 6.0146098658910745 10.11043289672575 4 29 23
0.6656759598134739 6.0782507086921616 10.732277792760687 7 42 31
-4.106592045788213 5.9809135366570025 9.464951891207301 1 11 8
-3.7573358894102165 6.024254273300045 9.121599776833813 4 24 22
-4.010882643334654 6.07492240564029 9.26353116364593 4 27 25
0.6151362912699935 6.248280174169844 10.698312383799834 4 31 23
-3.8513943491738414 6.092180923761237 9.094856576027459 2 14 13
-4.228943438412977 6.115249441704302 9.149576350777602 6 37 31
1.17838116136837 6.224465707586706 10.062946407811994 11 65 43
6.297133681888468 6.868301415620046 15.699303311653692 4 27 19
-3.7151365476639553 6.20281308589974 9.4937711432348 2 15 14
-3.9086449385938904 6.243119070231254 9.266318714403168 5 34 34
0.6345129385207021 6.3947950276937995 10.577699759300135 5 32 24
0.9003679581305788 6.36402049352367 10.288562850055467 14 83 56
-3.650260485891667 6.311288383412389 9.661749298648381 3 21 20
-4.373700420550876 6.241053820380561 9.077588795450184 5 34 32
-4.22499832324476 6.256881882837282 9.219657606774433 5 33 32
2.5764381679896475 6.3422039704969695 9.782801479122911 7 43 30
-0.057073556838881136 6.66599662974439 12.163652699285471 10 64 42
-3.51246716097382 6.353076491182781 9.722862736431074 5 30 26
-0.7647370541088439 6.596129612110646 11.216501228034806 9 60 42
-0.2856659848743875 6.718892306355235 11.765985469362377 11 63 42
-3.6744361434334327 6.358927199812255 9.189614243858792 3 21 21
2.964917943666301 6.605492372837725 10.896986615534429 6 35 26
-3.6620406451444607 6.44925448699728 9.346622108708592 5 37 32
-0.1370941105400838 6.848360634975926 12.218977588293471 7 43 28
-3.9461115005059857 6.529368903596632 9.441641727006166 5 38 34
-0.269416678649232 6.878547334220265 11.741476281649888 10 59 37
0.8121467797559682 6.732176984725157 10.281999689458189 7 45 32
0.933054064834143 6.746355367888636 10.116251410590694 7 43 30
2.1554296706482554 6.794938412176945 10.068934389120674 5 33 24
4.761613815962119 7.641402011519103 14.94432180357881 8 57 41
